-0.070668 0.006000 -0.035717 
0.032493 -0.034056 -0.003025 
-0.157949 -0.006000 -0.096555 
-0.010272 -0.018025 -0.003025 
-0.045292 -0.006000 -0.095253 
0.140257 -0.005587 -0.003025 
-0.208165 -0.045656 0.008975 
-0.018016 0.006222 0.008975 
-0.253036 -0.006000 -0.075470 
0.188249 0.050000 0.005905 
0.035632 -0.045272 -0.003025 
-0.231285 0.006000 -0.031381 
-0.007436 0.008556 -0.003025 
-0.032963 -0.006000 -0.036902 
-0.200876 -0.006000 -0.040270 
-0.289773 0.003172 -0.103025 
0.003358 -0.012842 -0.003025 
0.191266 -0.034858 0.001159 
-0.021864 -0.006000 -0.014290 
0.030017 -0.006000 -0.042301 
0.114776 0.042951 0.008975 
0.028612 -0.006000 -0.082515 
0.141825 -0.035548 -0.003025 
0.191266 0.016223 0.003524 
-0.145131 0.022055 -0.003025 
-0.091288 -0.006000 -0.043758 
0.080118 -0.006000 -0.085563 
-0.113241 -0.006000 -0.073798 
0.020750 0.041956 0.008975 
0.006829 0.006000 -0.016263 
0.113147 -0.043749 0.008975 
-0.161978 -0.030398 -0.003025 
0.093969 -0.006491 -0.003025 
-0.193723 -0.050000 -0.003004 
0.138239 0.034445 0.008975 
-0.066312 -0.027449 0.008975 
-0.060307 0.006000 -0.100149 
-0.015864 0.044849 0.008975 
-0.229559 -0.006000 -0.028536 
-0.097362 -0.006000 -0.028081 
-0.143536 0.006000 -0.052949 
-0.288485 -0.006000 -0.060166 
-0.229631 0.006000 -0.021382 
-0.048103 -0.006000 -0.042255 
-0.060150 0.006000 -0.049775 
0.021193 -0.037529 -0.003025 
0.033634 -0.003372 -0.003025 
-0.208072 0.012583 0.008975 
0.007080 0.006000 -0.082383 
-0.230955 -0.006000 -0.042509 
0.119396 -0.021791 0.008975 
-0.020609 -0.027688 -0.003025 
-0.033646 -0.046870 -0.003025 
-0.188536 -0.006000 -0.008401 
0.008516 -0.006000 -0.088005 
-0.041633 -0.001614 0.008975 
-0.067522 0.040411 0.008975 
-0.169758 0.006000 -0.074411 
0.174385 -0.019918 -0.003025 
0.173496 0.046495 0.008975 
0.043576 0.006000 -0.009820 
-0.137983 0.006000 -0.017813 
-0.065919 0.026573 0.008975 
-0.222385 0.006000 -0.085814 
0.091254 0.006000 -0.094383 
-0.178196 -0.015947 0.008975 
-0.167872 0.022487 -0.003025 
-0.035408 0.032138 -0.003025 
-0.164952 -0.036870 -0.003025 
0.041691 0.006000 -0.063730 
-0.047072 0.006000 -0.082487 
-0.235257 0.006000 -0.048915 
-0.135563 0.006000 -0.007738 
0.007369 -0.006000 -0.010309 
-0.104075 0.006000 -0.097090 
-0.053249 0.006000 -0.055606 
-0.062159 -0.006000 -0.039194 
-0.035743 -0.019064 -0.003025 
-0.185578 0.050000 -0.000646 
-0.222684 0.006000 -0.018715 
-0.136244 0.006000 -0.014534 
0.140076 -0.014971 0.008975 
-0.233974 -0.006000 -0.036801 
-0.022594 0.021274 -0.003025 
-0.027798 0.003156 0.008975 
-0.026402 0.035794 -0.003025 
-0.043508 -0.046329 -0.003025 
0.179200 -0.050000 0.003131 
-0.193245 0.008221 -0.003025 
-0.294237 0.006000 -0.003964 
0.063059 0.006000 -0.064781 
-0.049269 0.006000 -0.046677 
-0.075531 -0.046152 0.008975 
-0.179054 -0.006000 -0.019078 
0.049207 0.006000 -0.030777 
-0.286284 -0.006000 -0.004160 
-0.056764 -0.037110 0.008975 
-0.260425 -0.006000 -0.079216 
-0.206058 -0.006000 -0.030538 
-0.095933 0.006000 -0.011707 
0.188745 -0.035288 -0.003025 
-0.192408 -0.019746 -0.003025 
-0.080172 -0.009477 0.008975 
-0.151534 0.011270 -0.003025 
-0.022321 0.017020 -0.003025 
0.075714 0.039379 0.008975 
-0.051426 0.007466 0.008975 
0.030861 0.023216 -0.003025 
-0.152568 -0.046978 -0.003025 
-0.107380 -0.031675 0.008975 
-0.098539 -0.047733 0.008975 
-0.134387 0.022843 -0.003025 
-0.207832 -0.006000 -0.094806 
-0.074554 -0.041830 0.008975 
-0.153168 -0.006000 -0.073547 
-0.174928 -0.050000 0.006172 
-0.286788 0.003665 -0.103025 
0.055055 0.050000 0.008928 
-0.057022 -0.008895 -0.003025 
0.012584 -0.004322 -0.003025 
0.149343 0.033801 -0.003025 
-0.048813 0.036688 0.008975 
-0.043928 0.006000 -0.077312 
-0.059886 -0.006000 -0.097330 
0.019089 -0.010652 0.008975 
-0.114025 0.015482 0.008975 
-0.203813 -0.007442 -0.003025 
0.002051 -0.041245 -0.003025 
0.026095 -0.006000 -0.009451 
-0.108494 0.050000 0.007966 
-0.029611 0.006000 -0.047022 
0.053066 -0.005444 -0.103025 
-0.114343 -0.006000 -0.064262 
0.035853 0.017582 -0.003025 
0.035396 0.048424 0.008975 
0.125899 0.012501 -0.003025 
-0.090558 -0.006000 -0.077594 
-0.295633 0.006000 -0.095598 
0.135144 0.043606 -0.003025 
0.044829 0.005140 -0.003025 
-0.260164 -0.006000 -0.042639 
-0.094775 -0.006000 -0.039899 
0.021716 0.023957 0.008975 
-0.167039 -0.001462 0.008975 
-0.000879 -0.006000 -0.053455 
-0.063849 -0.006000 -0.056204 
-0.193734 0.029922 -0.003025 
0.046864 -0.006000 -0.067634 
-0.114457 0.006000 -0.054971 
-0.017270 0.006000 -0.012529 
0.092049 -0.015831 0.008975 
-0.159913 0.006000 -0.014966 
-0.029829 -0.006000 -0.065791 
-0.204917 0.006000 -0.025605 
-0.006645 0.028779 0.008975 
-0.226994 -0.006000 -0.095339 
0.004730 -0.006000 -0.047980 
0.191266 0.010976 0.000651 
0.079416 0.036013 -0.003025 
-0.299535 -0.006000 -0.101168 
-0.276832 0.006000 -0.009060 
-0.070251 0.006000 -0.030243 
-0.132375 -0.006000 -0.014538 
-0.284163 0.006000 -0.054979 
-0.193102 0.006000 -0.014342 
0.039952 -0.000608 0.008975 
-0.278475 -0.006000 -0.027000 
-0.249606 -0.006000 -0.066576 
-0.008982 -0.043455 0.008975 
-0.196070 0.019357 -0.003025 
0.072863 -0.044994 0.008975 
0.080967 -0.015028 0.008975 
-0.097475 0.006000 -0.085874 
-0.049787 -0.014700 -0.003025 
-0.201465 -0.006000 -0.013973 
-0.308457 0.006000 -0.020204 
-0.298189 -0.006000 -0.076782 
-0.023827 0.050000 -0.000686 
-0.073923 0.006000 -0.043531 
-0.066669 -0.002047 -0.003025 
-0.064045 -0.042146 -0.003025 
-0.142803 0.042552 -0.003025 
-0.200676 -0.006000 -0.088975 
-0.182715 -0.006000 -0.078531 
-0.123538 -0.014843 0.008975 
-0.053217 0.015312 0.008975 
-0.155468 -0.006000 -0.017442 
-0.163151 -0.012343 0.008975 
-0.062726 -0.006000 -0.059013 
-0.268425 -0.006000 -0.009419 
-0.146870 -0.050000 -0.000382 
0.004851 0.014083 -0.003025 
-0.039208 0.050000 0.005660 
-0.174086 -0.020041 0.008975 
0.172545 -0.029766 0.008975 
-0.199844 -0.000658 0.008975 
0.027716 0.006000 -0.066151 
-0.153829 -0.006000 -0.033191 
0.007043 -0.006000 -0.068022 
0.131354 0.019463 0.008975 
0.028747 -0.007147 -0.003025 
0.013063 -0.021541 -0.003025 
-0.208421 0.006000 -0.037049 
-0.161794 -0.006000 -0.014495 
-0.013524 -0.006000 -0.051901 
0.033385 0.018926 0.008975 
0.082901 -0.006000 -0.024087 
-0.165358 0.050000 -0.003010 
-0.308734 -0.002411 -0.053244 
0.103513 -0.030012 0.008975 
-0.058806 0.045619 0.008975 
0.032018 -0.047354 0.008975 
-0.013504 0.006000 -0.093462 
0.147040 -0.040617 0.008975 
-0.201842 0.017967 0.008975 
-0.018666 -0.006000 -0.083587 
-0.052675 0.006000 -0.024001 
-0.112164 -0.006000 -0.013363 
0.054358 0.000723 0.008975 
-0.042560 -0.006000 -0.046478 
-0.116095 -0.006000 -0.072394 
-0.226499 -0.006000 -0.023230 
0.046852 0.006000 -0.024819 
0.061648 -0.006000 -0.016487 
-0.290773 0.006000 -0.029687 
-0.186885 0.006000 -0.070685 
-0.120943 0.006000 -0.084049 
0.009756 -0.030022 0.008975 
-0.032826 0.047480 -0.003025 
-0.049103 0.006000 -0.009751 
-0.109766 0.006000 -0.063292 
0.183446 -0.050000 0.005957 
0.085529 0.039689 -0.003025 
0.031143 0.006000 -0.067151 
-0.199383 -0.006000 -0.074564 
-0.160860 -0.006000 -0.089569 
-0.126234 0.002009 -0.003025 
-0.099069 0.006000 -0.038379 
-0.115896 0.006000 -0.019370 
-0.107066 0.012602 0.008975 
-0.128104 0.006000 -0.050392 
-0.127399 0.028022 0.008975 
0.190272 -0.016477 -0.003025 
-0.208734 -0.041020 0.003229 
0.182716 -0.014126 -0.003025 
0.085003 0.006000 -0.059375 
-0.204633 0.025876 0.008975 
-0.178723 -0.000842 -0.003025 
-0.175591 0.006000 -0.038377 
-0.047395 -0.006000 -0.035758 
-0.183727 0.006000 -0.050196 
-0.160559 -0.022835 -0.003025 
0.053502 -0.009495 -0.003025 
-0.134724 -0.006000 -0.025599 
-0.142912 0.034414 0.008975 
-0.019390 0.006000 -0.092927 
0.080373 0.036662 0.008975 
0.185703 -0.022097 -0.003025 
-0.207045 -0.006000 -0.086017 
0.171679 0.002309 -0.003025 
0.170540 -0.005671 0.008975 
0.025088 -0.011848 -0.003025 
-0.191524 0.006000 -0.016966 
0.126759 -0.046793 0.008975 
0.072422 -0.006000 -0.066019 
-0.043958 -0.018365 0.008975 
-0.004994 0.006000 -0.067992 
-0.007855 -0.006000 -0.028772 
0.088341 -0.006000 -0.100121 
0.020565 -0.003789 0.008975 
-0.181621 -0.006000 -0.021298 
-0.161047 -0.006000 -0.008689 
0.149982 0.050000 -0.000752 
-0.276796 -0.006000 -0.102876 
-0.069253 -0.034140 0.008975 
-0.021383 0.006000 -0.070671 
-0.082669 -0.044663 0.008975 
-0.208734 0.046403 0.008313 
-0.037174 -0.031183 0.008975 
-0.112718 -0.050000 0.002227 
-0.237154 -0.006000 -0.071919 
0.162636 -0.046727 -0.003025 
-0.043502 0.010895 -0.003025 
-0.001077 -0.006000 -0.024300 
-0.215275 -0.006000 -0.045823 
-0.130836 0.033296 0.008975 
0.161371 -0.039412 0.008975 
0.022231 -0.002091 -0.103025 
-0.181007 0.006000 -0.029642 
0.028410 -0.000442 0.008975 
-0.125637 -0.048505 0.008975 
-0.210781 -0.006000 -0.092664 
-0.204502 -0.026278 -0.003025 
-0.063617 0.006000 -0.092236 
0.020585 0.006000 -0.092796 
0.098881 0.040611 0.008975 
0.111693 0.050000 0.007960 
-0.178325 -0.008215 -0.003025 
0.014359 0.029746 -0.003025 
-0.093665 -0.046608 -0.003025 
-0.093413 -0.006000 -0.050522 
-0.070319 -0.003706 -0.103025 
-0.230023 -0.002069 -0.103025 
-0.095207 0.050000 -0.000997 
0.072249 0.006000 -0.101535 
0.073646 -0.006000 -0.044754 
-0.284974 -0.006000 -0.047281 
0.039859 0.002983 -0.103025 
-0.108744 0.006000 -0.076130 
0.072938 0.028574 0.008975 
-0.260793 0.006000 -0.086671 
0.028069 0.006000 -0.100838 
-0.069456 -0.029703 0.008975 
-0.255854 0.006000 -0.012324 
0.148532 0.029438 0.008975 
0.083411 0.030984 -0.003025 
0.048341 0.042438 -0.003025 
-0.131203 -0.006000 -0.006384 
0.055565 -0.006000 -0.081433 
-0.257758 0.006000 -0.036274 
0.078202 0.006000 -0.096485 
-0.145483 -0.006000 -0.054298 
-0.293500 0.001182 -0.103025 
-0.184580 0.006000 -0.075677 
-0.103383 -0.006000 -0.036578 
0.144842 -0.008488 0.008975 
-0.183252 0.025235 0.008975 
-0.013520 -0.006000 -0.101036 
0.071243 -0.011799 0.008975 
-0.060120 0.008314 -0.003025 
-0.112480 0.010020 -0.003025 
0.107807 -0.029017 0.008975 
0.023466 0.006000 -0.052308 
-0.179317 0.017003 -0.003025 
-0.168156 0.006000 -0.089972 
-0.173368 0.042735 0.008975 
-0.213903 -0.006000 -0.009003 
0.062088 0.019417 -0.003025 
-0.145306 -0.008566 -0.003025 
-0.245232 -0.006000 -0.014692 
-0.046088 -0.025183 -0.003025 
-0.063078 0.006000 -0.060554 
0.015784 0.011233 0.008975 
0.092521 0.011862 0.008975 
0.017271 -0.030527 0.008975 
0.152630 0.050000 -0.002672 
-0.119940 -0.011687 -0.003025 
-0.138165 -0.014852 0.008975 
-0.030020 -0.006000 -0.056656 
-0.281838 0.006000 -0.096714 
0.012326 0.006000 -0.049935 
-0.107956 0.018665 -0.003025 
-0.304145 -0.006000 -0.069309 
0.187903 0.021387 -0.003025 
0.024111 0.006000 -0.072143 
-0.113818 -0.004804 -0.003025 
-0.059436 0.006000 -0.059498 
-0.052415 -0.006000 -0.052369 
-0.113946 -0.006000 -0.046505 
-0.050779 0.038617 -0.003025 
-0.308734 -0.003633 -0.056391 
-0.016574 0.006000 -0.045774 
0.154600 0.031241 -0.003025 
0.001727 0.006000 -0.065232 
-0.195070 0.033100 -0.003025 
0.081753 0.006000 -0.059160 
-0.210033 -0.006000 -0.021618 
-0.108869 -0.006000 -0.072782 
-0.180247 0.006000 -0.017440 
0.155634 -0.029646 0.008975 
0.013097 -0.006000 -0.012677 
-0.066964 0.006000 -0.064907 
-0.164992 -0.009860 0.008975 
-0.190141 0.001279 -0.103025 
-0.300789 0.006000 -0.007898 
0.158112 0.008349 -0.003025 
-0.008681 -0.050000 0.003547 
0.103693 0.020156 0.008975 
0.123929 -0.022634 0.008975 
0.045470 -0.006000 -0.056685 
-0.183675 0.006000 -0.072120 
0.049761 0.008714 -0.003025 
-0.016849 -0.029398 -0.003025 
-0.169704 0.027686 -0.003025 
-0.197462 0.006000 -0.095586 
0.091266 -0.002699 -0.030776 
-0.084238 0.006000 -0.054768 
-0.134907 0.006000 -0.091954 
-0.086296 0.039445 0.008975 
-0.050351 -0.006000 -0.009912 
0.037449 -0.009015 0.008975 
0.145686 0.050000 0.004388 
-0.042351 -0.006000 -0.012494 
-0.023878 0.018015 0.008975 
-0.057199 0.006000 -0.073052 
-0.187517 0.006000 -0.016617 
-0.141752 0.005030 -0.103025 
-0.149191 -0.006000 -0.082031 
0.051402 -0.009558 0.008975 
0.183283 -0.001236 -0.003025 
-0.013257 0.036027 -0.003025 
-0.174823 0.006000 -0.031336 
-0.003857 -0.006000 -0.096678 
0.020174 0.039090 0.008975 
0.190483 0.050000 -0.001289 
0.037136 -0.006000 -0.033564 
-0.144931 0.006000 -0.049660 
-0.024271 0.014745 -0.003025 
-0.093321 -0.007805 -0.003025 
-0.241114 0.006000 -0.011014 
-0.052273 -0.006000 -0.087700 
0.013155 0.006000 -0.020304 
0.161473 -0.006085 0.008975 
0.150951 0.046891 -0.003025 
-0.074005 0.001867 0.008975 
0.015559 -0.046925 -0.003025 
-0.292043 -0.006000 -0.024348 
-0.129820 0.006000 -0.034730 
0.172710 0.006348 0.008975 
0.086953 -0.050000 -0.000726 
-0.090188 0.006000 -0.076558 
-0.099994 -0.006000 -0.004188 
-0.140874 -0.006000 -0.021185 
-0.017512 0.006000 -0.077406 
-0.112650 0.006000 -0.085486 
-0.269721 -0.002467 -0.003025 
0.131920 -0.039520 0.008975 
0.059696 0.006000 -0.035701 
0.123485 0.047285 0.008975 
-0.094884 -0.006000 -0.017193 
-0.046173 -0.037451 0.008975 
-0.213577 -0.006000 -0.030472 
-0.201320 -0.006000 -0.017300 
-0.159583 0.035639 0.008975 
0.008054 -0.041099 -0.003025 
-0.171950 -0.006000 -0.091614 
-0.225849 0.006000 -0.054849 
-0.110715 0.006000 -0.092234 
-0.040353 0.006000 -0.064034 
-0.172452 -0.006000 -0.039811 
0.191266 -0.009293 0.003286 
0.122587 -0.044967 0.008975 
0.037176 0.042788 0.008975 
0.114250 0.018569 -0.003025 
-0.202889 0.006000 -0.016000 
0.030282 -0.050000 0.002944 
0.139136 0.026041 0.008975 
0.000369 -0.014262 -0.003025 
-0.072379 -0.006000 -0.097212 
-0.307834 -0.006000 -0.096752 
-0.044252 -0.006000 -0.021323 
0.024525 -0.049964 0.008975 
-0.032934 -0.006000 -0.005988 
-0.084580 -0.032651 -0.003025 
-0.115581 0.006000 -0.005972 
-0.000085 0.019275 0.008975 
-0.121641 -0.006000 -0.087691 
-0.148882 0.045907 0.008975 
-0.024912 -0.007180 0.008975 
0.013001 0.006000 -0.102860 
-0.177904 -0.006000 -0.016010 
-0.232919 0.006000 -0.050949 
-0.162405 0.006000 -0.071014 
-0.012920 0.042783 0.008975 
-0.259747 0.006000 -0.093799 
-0.120044 -0.036147 -0.003025 
-0.163504 -0.006000 -0.006831 
-0.066102 0.016264 -0.003025 
-0.059765 0.006000 -0.013579 
0.154130 -0.017668 0.008975 
0.073554 0.012131 -0.003025 
-0.027822 0.047315 0.008975 
0.094059 -0.007590 0.008975 
-0.123540 0.006000 -0.065407 
0.065969 0.000300 -0.003025 
-0.025678 -0.006000 -0.081490 
0.169868 -0.037614 0.008975 
-0.280825 -0.006000 -0.081717 
-0.258840 0.005709 -0.003025 
-0.020990 -0.006000 -0.040314 
-0.291287 0.006000 -0.059811 
0.019262 -0.033364 -0.003025 
-0.283081 0.006000 -0.086110 
-0.027807 -0.032161 0.008975 
-0.172123 -0.006000 -0.032021 
-0.175421 0.024168 -0.003025 
0.080650 0.006000 -0.053817 
-0.170338 0.002882 -0.003025 
-0.063990 0.006000 -0.046265 
-0.096969 -0.006000 -0.088024 
0.083001 0.049600 -0.003025 
0.150750 -0.050000 -0.002632 
-0.019955 -0.006000 -0.037122 
-0.150886 0.006000 -0.006218 
0.037165 0.006000 -0.078724 
-0.084835 0.032746 -0.003025 
-0.230141 -0.006000 -0.088586 
-0.168074 -0.006000 -0.100148 
-0.094079 -0.030000 0.008975 
-0.136706 -0.010303 -0.003025 
-0.193743 0.039110 -0.003025 
0.083046 0.006000 -0.005133 
0.140783 0.039106 0.008975 
0.084353 -0.016425 0.008975 
-0.232647 0.006000 -0.021608 
-0.114890 -0.032854 0.008975 
-0.282034 -0.006000 -0.014467 
-0.267751 -0.004967 -0.003025 
0.069003 -0.005573 -0.103025 
0.061423 0.012346 0.008975 
0.133862 0.016496 0.008975 
-0.277662 -0.001467 -0.003025 
-0.115441 0.006000 -0.049167 
0.086508 -0.050000 0.004011 
-0.023980 -0.006000 -0.040804 
0.142823 -0.010610 0.008975 
-0.000134 -0.050000 0.006169 
-0.168874 0.006000 -0.086896 
0.056602 0.002625 0.008975 
-0.088820 -0.006000 -0.026443 
-0.051801 0.006000 -0.027242 
-0.163162 -0.020655 -0.003025 
-0.131673 -0.033923 0.008975 
-0.093541 0.006000 -0.027103 
-0.033350 0.015668 -0.003025 
0.050166 0.006000 -0.085671 
-0.018857 0.002682 -0.003025 
-0.187165 0.006000 -0.027925 
-0.043923 0.006000 -0.029748 
0.121173 0.025606 -0.003025 
-0.152238 0.027697 -0.003025 
-0.173041 -0.005789 -0.103025 
-0.147402 0.050000 -0.002394 
0.050292 0.006000 -0.094499 
-0.186364 -0.006000 -0.045973 
-0.084102 -0.050000 0.002058 
-0.247684 -0.003447 -0.003025 
0.054954 -0.050000 0.003118 
0.028792 -0.006000 -0.067909 
0.028633 0.006000 -0.063216 
-0.290871 0.006000 -0.063173 
-0.154728 0.037408 -0.003025 
0.024049 0.006000 -0.035996 
-0.144555 -0.006000 -0.063687 
0.161004 -0.025275 0.008975 
-0.000016 -0.006000 -0.021076 
-0.046930 -0.049358 0.008975 
-0.051602 0.032338 -0.003025 
-0.064280 -0.002029 -0.103025 
0.166988 0.041614 -0.003025 
-0.138340 -0.007440 0.008975 
0.089939 0.006000 -0.098967 
0.051651 0.042463 -0.003025 
0.191266 -0.020933 0.008401 
-0.064995 -0.006000 -0.073115 
0.021412 0.015610 -0.003025 
0.096768 -0.047380 -0.003025 
0.191266 -0.000689 -0.002811 
0.011402 -0.050000 0.005116 
0.009683 0.006000 -0.098692 
0.021494 -0.006000 -0.027512 
-0.101017 0.050000 0.001449 
-0.225411 -0.006000 -0.038541 
-0.084940 -0.019559 0.008975 
0.031198 -0.017753 0.008975 
0.111933 -0.030759 0.008975 
-0.159100 -0.006000 -0.057912 
-0.222271 -0.006000 -0.023294 
-0.076650 -0.006000 -0.101185 
0.011897 0.006000 -0.032048 
-0.028299 0.005945 -0.103025 
0.016713 -0.002786 -0.103025 
-0.160951 0.002437 0.008975 
0.067154 -0.006000 -0.100669 
-0.060014 0.019154 0.008975 
0.091266 0.002979 -0.031951 
0.017971 0.006000 -0.049540 
-0.308734 0.000324 -0.055207 
-0.007656 -0.022856 -0.003025 
-0.080453 -0.006000 -0.070647 
-0.174996 -0.006000 -0.072928 
-0.234861 0.006000 -0.061812 
-0.038980 -0.043843 0.008975 
0.073423 -0.036305 0.008975 
-0.047661 -0.006000 -0.093558 
0.043477 -0.021318 0.008975 
0.018877 -0.049602 0.008975 
-0.066760 0.003550 -0.003025 
0.087368 0.021329 0.008975 
-0.157577 0.003033 0.008975 
-0.249079 -0.006000 -0.094967 
-0.224626 -0.006000 -0.066496 
0.166732 0.002583 -0.003025 
0.151516 -0.004433 0.008975 
0.059416 -0.019093 -0.003025 
-0.191408 0.006000 -0.077199 
0.053173 -0.006000 -0.094760 
-0.084529 0.050000 0.005782 
-0.170005 -0.019969 0.008975 
0.053503 0.016913 0.008975 
-0.133007 0.006000 -0.073718 
-0.090562 0.006000 -0.073038 
0.042799 -0.006000 -0.058152 
0.006939 0.006000 -0.075102 
0.113965 -0.022902 0.008975 
-0.224853 0.006000 -0.031586 
-0.177752 0.050000 -0.002918 
0.122068 0.001921 -0.003025 
0.089143 -0.017684 -0.003025 
-0.168117 -0.008336 0.008975 
0.026474 -0.034552 0.008975 
0.050234 -0.006000 -0.067759 
-0.037718 -0.006000 -0.016442 
-0.271255 -0.006000 -0.005169 
-0.061608 -0.006000 -0.042521 
-0.094325 -0.006000 -0.069244 
-0.023396 -0.006000 -0.043868 
-0.252933 0.006000 -0.062377 
-0.133400 0.016262 -0.003025 
-0.005616 -0.050000 -0.001264 
-0.041626 0.006000 -0.008605 
0.133611 -0.050000 -0.000944 
-0.303461 0.006000 -0.095165 
0.125325 -0.048107 -0.003025 
-0.161258 0.049981 -0.003025 
0.129886 0.011046 0.008975 
-0.087293 0.006000 -0.055170 
0.052898 0.006673 -0.003025 
-0.107075 -0.004892 0.008975 
-0.083535 0.005610 -0.103025 
0.020714 -0.029106 0.008975 
0.045348 -0.040491 -0.003025 
0.004295 -0.031569 0.008975 
-0.221857 -0.006000 -0.064929 
-0.050921 -0.003358 -0.103025 
0.039954 -0.047026 0.008975 
0.155818 0.006147 -0.003025 
-0.308734 0.002691 -0.052719 
0.020562 -0.046010 0.008975 
-0.199673 -0.036498 -0.003025 
0.083941 0.021636 0.008975 
-0.193536 -0.038409 -0.003025 
-0.284027 -0.006000 -0.050548 
-0.015202 0.006000 -0.073796 
-0.066738 0.050000 0.005108 
-0.109286 -0.005636 -0.103025 
-0.181330 -0.049751 -0.003025 
-0.192104 0.006000 -0.091987 
-0.234685 0.006000 -0.044822 
-0.242068 0.006000 -0.065279 
-0.295068 -0.006000 -0.071933 
-0.110934 -0.045819 0.008975 
-0.187201 0.041290 0.008975 
-0.087244 -0.020546 -0.003025 
-0.099046 0.006000 -0.022092 
-0.142377 -0.006000 -0.097435 
0.021531 -0.006000 -0.070899 
-0.197545 0.044336 -0.003025 
0.032304 -0.006000 -0.055357 
-0.101925 0.050000 -0.001389 
-0.008952 0.011644 -0.003025 
-0.248236 0.006000 -0.031153 
-0.011233 -0.006000 -0.007623 
-0.081330 0.002252 -0.003025 
0.023717 0.032469 0.008975 
-0.030012 0.011675 -0.003025 
-0.182936 0.006000 -0.027322 
-0.308734 -0.005883 -0.028457 
-0.171267 -0.006000 -0.027215 
0.036650 -0.006000 -0.006535 
-0.226011 0.006000 -0.017864 
-0.208734 -0.039413 0.008807 
-0.064577 0.006000 -0.028912 
-0.251040 0.006000 -0.025627 
0.061661 0.006000 -0.082814 
-0.259591 0.006000 -0.070807 
0.015072 -0.007094 -0.003025 
0.034687 0.006000 -0.026283 
-0.267947 -0.006000 -0.069249 
-0.082940 -0.006000 -0.035920 
-0.154257 -0.006000 -0.053711 
0.034110 -0.040639 0.008975 
-0.083314 0.006000 -0.050525 
-0.073801 0.011327 -0.003025 
-0.239686 -0.006000 -0.008166 
-0.021448 0.046045 -0.003025 
0.145292 -0.005040 0.008975 
-0.038769 0.027445 0.008975 
0.067619 -0.006000 -0.050156 
-0.160687 0.034838 -0.003025 
-0.024535 -0.006000 -0.046586 
0.083973 -0.006000 -0.074278 
-0.149151 0.032879 0.008975 
-0.177981 0.014313 -0.003025 
0.102076 0.027843 -0.003025 
-0.265853 -0.006000 -0.051107 
-0.278469 -0.006000 -0.086271 
-0.043798 0.006000 -0.093207 
-0.002693 0.006000 -0.091548 
-0.042999 0.006000 -0.015556 
0.134903 -0.044550 0.008975 
0.033622 0.027518 0.008975 
-0.187779 0.006000 -0.085879 
0.046901 0.006000 -0.096586 
-0.148129 0.043545 -0.003025 
-0.280225 -0.006000 -0.010830 
0.024458 -0.045680 0.008975 
-0.023198 0.006000 -0.076741 
-0.070723 0.004967 0.008975 
0.182817 -0.022795 -0.003025 
-0.182201 -0.016933 0.008975 
-0.128655 -0.006000 -0.021123 
-0.017346 0.006000 -0.017795 
-0.180900 0.031054 -0.003025 
-0.116928 -0.038826 0.008975 
0.119237 -0.008596 -0.003025 
-0.073242 0.001326 -0.103025 
-0.123912 -0.000965 -0.103025 
-0.082329 -0.006000 -0.032347 
-0.284341 0.006000 -0.041779 
-0.187542 -0.041761 -0.003025 
-0.079145 0.006000 -0.100022 
-0.203751 -0.018365 0.008975 
-0.123282 -0.006000 -0.061014 
0.080824 -0.006000 -0.026238 
-0.151496 0.004634 -0.003025 
-0.132045 0.006000 -0.090773 
0.056008 -0.006000 -0.084483 
0.127406 0.027968 -0.003025 
0.064605 0.006000 -0.044737 
-0.107633 0.006000 -0.035662 
0.005335 -0.049758 0.008975 
-0.096982 0.014969 0.008975 
-0.103715 -0.044526 0.008975 
-0.108341 0.015089 -0.003025 
-0.111620 -0.050000 -0.000677 
-0.127051 -0.006000 -0.094879 
-0.137880 -0.031602 0.008975 
0.112559 -0.045333 -0.003025 
-0.062394 0.005492 -0.103025 
0.170696 0.009653 -0.003025 
-0.148121 -0.006000 -0.063235 
-0.210626 -0.006000 -0.036819 
0.165914 0.047246 0.008975 
0.124509 0.009407 -0.003025 
-0.289376 0.006000 -0.034609 
0.031796 0.006000 -0.064315 
-0.124743 0.044299 0.008975 
-0.089338 -0.006000 -0.055592 
0.085092 -0.047609 0.008975 
0.055216 -0.006000 -0.091678 
-0.134059 0.026999 -0.003025 
0.014868 0.006000 -0.011830 
-0.038313 0.006000 -0.042254 
-0.161573 -0.006000 -0.074523 
0.136430 -0.014872 -0.003025 
0.109172 -0.002949 -0.003025 
0.093702 -0.049782 -0.003025 
-0.011053 0.038256 -0.003025 
-0.016184 -0.006167 0.008975 
-0.019303 -0.006000 -0.006140 
0.085185 -0.023576 0.008975 
-0.205706 -0.004470 -0.003025 
0.013757 0.006000 -0.071245 
0.076334 -0.006000 -0.032013 
-0.086334 0.006000 -0.067541 
0.089247 -0.031678 0.008975 
-0.141832 -0.006000 -0.076492 
-0.047025 0.006000 -0.030569 
0.083555 -0.006000 -0.085087 
-0.265079 0.006000 -0.021551 
0.138736 -0.035366 -0.003025 
-0.145222 0.006000 -0.098500 
-0.124118 0.006000 -0.041999 
-0.066848 0.050000 0.008221 
-0.077119 -0.049319 0.008975 
-0.007739 -0.006000 -0.055119 
-0.070008 -0.006000 -0.055058 
-0.189041 0.043180 -0.003025 
0.072283 -0.030264 -0.003025 
-0.047171 -0.006000 -0.097693 
-0.096107 -0.006000 -0.096060 
0.176694 -0.050000 0.001576 
-0.178583 0.022521 0.008975 
0.013803 -0.006000 -0.078012 
0.085882 -0.006000 -0.028173 
-0.308376 -0.006000 -0.016348 
-0.103983 0.018310 -0.003025 
-0.165252 -0.006000 -0.031246 
0.026600 -0.002806 0.008975 
0.093521 0.050000 -0.000978 
0.120247 0.035397 -0.003025 
-0.150825 0.014508 -0.003025 
-0.053098 0.019147 0.008975 
0.070030 0.027336 -0.003025 
-0.284162 0.006000 -0.006135 
0.159299 0.040216 -0.003025 
-0.215540 -0.005220 -0.103025 
0.058296 -0.037281 -0.003025 
-0.200474 0.006000 -0.014152 
-0.009781 -0.050000 0.007706 
0.126965 0.049742 0.008975 
-0.248674 0.006000 -0.089115 
0.075671 -0.006000 -0.066179 
-0.104413 0.020375 0.008975 
0.129045 0.028905 0.008975 
0.153853 0.024533 0.008975 
0.053747 0.006000 -0.046418 
-0.282143 0.006000 -0.057256 
0.010094 -0.026950 0.008975 
-0.195740 0.039236 0.008975 
-0.252721 0.006000 -0.010813 
-0.215656 -0.006000 -0.066834 
-0.079139 0.006000 -0.043291 
0.009508 -0.001060 -0.103025 
-0.117995 -0.025598 -0.003025 
-0.053436 0.049941 -0.003025 
-0.137160 -0.003418 -0.003025 
-0.109630 -0.006000 -0.054172 
0.009011 0.020508 0.008975 
-0.211738 0.006000 -0.082790 
0.154245 -0.035238 -0.003025 
0.069686 0.006000 -0.061241 
-0.151249 -0.044338 -0.003025 
0.012192 0.006000 -0.090576 
-0.168491 0.019070 -0.003025 
-0.097889 0.006000 -0.032937 
0.026488 0.006000 -0.031472 
-0.017307 0.050000 0.005978 
0.000251 0.006000 -0.025695 
-0.007870 -0.031413 0.008975 
-0.207437 0.000952 -0.103025 
0.123648 0.018953 0.008975 
-0.172354 -0.006000 -0.005820 
-0.069396 -0.038227 0.008975 
-0.157430 0.006000 -0.055576 
-0.092926 0.023130 -0.003025 
-0.091910 -0.003293 -0.003025 
0.154017 -0.019894 -0.003025 
0.084008 0.006000 -0.053345 
-0.269962 0.006000 -0.010384 
-0.135070 0.006000 -0.067877 
0.114100 0.004556 -0.003025 
0.108251 0.037600 -0.003025 
-0.069707 -0.006000 -0.058659 
-0.091566 0.006000 -0.041467 
-0.079820 0.002891 -0.103025 
-0.066539 0.006000 -0.084156 
-0.229641 0.006000 -0.052833 
0.124125 0.028769 0.008975 
0.082863 -0.006000 -0.094602 
-0.226118 -0.006000 -0.013735 
0.037065 0.013545 -0.003025 
0.080945 0.021888 0.008975 
0.026099 -0.006000 -0.098436 
-0.198435 0.005926 -0.103025 
-0.009803 -0.006000 -0.087359 
0.174187 -0.013198 0.008975 
-0.204907 -0.002165 -0.103025 
-0.047738 0.006000 -0.093374 
-0.256613 -0.006000 -0.048549 
-0.074253 0.046565 -0.003025 
-0.260008 -0.006000 -0.035049 
-0.031576 -0.006000 -0.012003 
-0.216397 -0.006000 -0.077180 
0.068451 -0.006000 -0.079845 
-0.130476 -0.026897 0.008975 
-0.012488 -0.011228 0.008975 
-0.086942 0.043895 0.008975 
0.091266 0.003067 -0.009644 
-0.034381 0.012870 -0.003025 
0.010971 -0.006000 -0.086389 
-0.026611 -0.028996 0.008975 
-0.135914 -0.028995 0.008975 
-0.282198 0.006000 -0.089694 
-0.180697 0.050000 -0.001416 
-0.287086 -0.006000 -0.084048 
0.086551 0.006000 -0.102293 
-0.141214 -0.006000 -0.094484 
-0.033174 -0.006000 -0.084675 
-0.027464 0.006000 -0.100181 
0.185311 0.024044 -0.003025 
-0.177635 0.006000 -0.020166 
-0.308734 -0.005408 -0.099453 
-0.151913 0.006000 -0.059423 
-0.036977 0.006000 -0.032255 
-0.123796 0.001392 0.008975 
-0.209332 0.006000 -0.088124 
-0.081524 -0.038035 0.008975 
-0.012720 -0.011544 -0.003025 
0.135357 -0.002289 -0.003025 
0.033524 -0.050000 0.008960 
-0.217979 -0.006000 -0.092151 
0.005191 -0.006000 -0.040335 
-0.201399 -0.006000 -0.066377 
0.059081 -0.029545 -0.003025 
0.088882 0.006000 -0.070535 
-0.064839 0.006000 -0.074933 
-0.037616 0.006000 -0.027796 
-0.288880 -0.006000 -0.063136 
0.049991 -0.000353 -0.103025 
-0.102251 -0.001524 0.008975 
-0.274979 -0.006000 -0.003384 
0.035590 0.021269 0.008975 
-0.010100 -0.000088 0.008975 
0.065393 0.015756 -0.003025 
-0.031903 0.006000 -0.052303 
-0.088096 0.007395 0.008975 
-0.002195 -0.006000 -0.102863 
0.005207 -0.006000 -0.005317 
-0.044256 0.006000 -0.096402 
-0.049312 -0.038717 0.008975 
0.089083 0.006000 -0.064345 
-0.095746 0.033756 0.008975 
-0.161508 -0.009304 -0.003025 
0.008497 0.006000 -0.018749 
-0.126604 0.006000 -0.035140 
0.042661 -0.006000 -0.089101 
-0.137214 -0.006000 -0.092780 
-0.218272 0.006000 -0.097675 
0.166841 -0.019364 0.008975 
-0.014047 -0.050000 0.002308 
-0.237845 0.006000 -0.089750 
-0.180262 -0.033665 -0.003025 
-0.192429 0.010763 0.008975 
-0.162182 -0.006000 -0.081011 
0.067538 0.006000 -0.013052 
-0.056869 -0.029641 -0.003025 
-0.233720 -0.006000 -0.074554 
0.000052 -0.006000 -0.078154 
-0.096156 0.019460 -0.003025 
0.052292 0.006000 -0.038706 
-0.041253 -0.006000 -0.092629 
-0.203842 0.006000 -0.035295 
0.040298 -0.018320 -0.003025 
-0.126527 0.050000 -0.002688 
-0.001830 -0.006000 -0.060553 
-0.094058 0.006000 -0.023487 
-0.025201 -0.006000 -0.013298 
0.017032 0.006000 -0.072015 
-0.072168 -0.027230 0.008975 
0.021147 -0.020679 -0.003025 
-0.252584 0.006000 -0.088253 
0.077178 -0.001083 -0.103025 
0.016590 0.047708 0.008975 
-0.006027 0.036049 -0.003025 
-0.284194 -0.006000 -0.100116 
0.076973 -0.036665 -0.003025 
0.010551 0.042168 -0.003025 
-0.067590 0.050000 0.001276 
-0.208734 0.021727 0.008290 
-0.131778 -0.006000 -0.046480 
-0.114667 0.000713 0.008975 
-0.278118 -0.006000 -0.095459 
-0.124331 -0.017889 0.008975 
0.091266 -0.003712 -0.008234 
-0.177708 -0.049960 0.008975 
-0.260052 0.006000 -0.083640 
-0.140962 -0.004002 -0.003025 
-0.243807 -0.006000 -0.069354 
-0.268028 0.005575 -0.003025 
-0.047394 -0.006000 -0.066903 
0.176214 0.050000 0.000020 
-0.139055 -0.006000 -0.017314 
0.022652 -0.006000 -0.012691 
-0.013321 0.006000 -0.070903 
0.045556 0.013114 0.008975 
-0.170404 0.000355 -0.103025 
0.167679 0.029286 -0.003025 
-0.163871 -0.006593 0.008975 
-0.208089 0.006000 -0.094418 
-0.208190 -0.006000 -0.083292 
0.031507 0.006000 -0.019127 
-0.080327 -0.006000 -0.034591 
-0.205941 0.006000 -0.083297 
-0.115548 -0.045028 0.008975 
0.043719 0.022035 0.008975 
0.075857 0.006000 -0.085626 
-0.094390 0.006000 -0.085079 
-0.206392 -0.006000 -0.018923 
-0.166100 0.006000 -0.060736 
-0.077116 -0.006000 -0.031593 
-0.131482 -0.006000 -0.078933 
-0.084288 0.002797 -0.003025 
-0.273385 0.000315 -0.103025 
-0.227457 -0.006000 -0.091559 
0.129935 -0.046553 -0.003025 
-0.116060 0.050000 0.007523 
-0.208734 0.001330 0.001414 
-0.170477 -0.006000 -0.043461 
-0.020531 -0.011116 0.008975 
-0.044939 -0.009207 0.008975 
-0.240449 0.005932 -0.003025 
-0.076814 0.006000 -0.036706 
-0.000379 -0.046351 0.008975 
-0.208734 -0.028571 0.002081 
-0.125275 0.006000 -0.062764 
-0.131510 -0.006000 -0.101066 
-0.198469 0.041340 -0.003025 
-0.279265 0.001855 -0.103025 
-0.224473 -0.006000 -0.045203 
-0.234394 -0.006000 -0.085484 
-0.039983 0.006000 -0.079731 
-0.276874 -0.006000 -0.049144 
0.070872 0.024363 -0.003025 
-0.152683 -0.006000 -0.036070 
-0.097571 -0.006000 -0.101271 
-0.284029 -0.006000 -0.021557 
-0.012284 -0.002525 0.008975 
-0.113889 0.028714 -0.003025 
0.035445 -0.033760 -0.003025 
-0.107270 0.034606 -0.003025 
-0.284957 0.006000 -0.095450 
-0.204946 0.006000 -0.074977 
0.065777 0.002848 -0.103025 
-0.244125 -0.006000 -0.077712 
-0.201907 -0.002572 -0.103025 
0.127559 -0.012246 -0.003025 
-0.065881 0.044696 -0.003025 
-0.083574 -0.013101 0.008975 
0.055314 0.006000 -0.021743 
0.079888 0.004683 -0.003025 
-0.294415 0.006000 -0.027700 
-0.017921 0.032643 0.008975 
-0.090159 -0.025828 -0.003025 
0.088216 0.006000 -0.020179 
0.012103 0.006000 -0.037634 
0.046544 0.006000 -0.053217 
0.031071 -0.006000 -0.005450 
0.162275 0.040680 -0.003025 
-0.276691 0.006000 -0.003628 
0.040188 0.004623 -0.003025 
0.081985 0.006000 -0.018524 
0.102068 -0.037177 -0.003025 
-0.168688 -0.038753 -0.003025 
-0.200840 0.006000 -0.011109 
0.009334 0.006000 -0.036151 
-0.025112 0.006000 -0.068650 
0.031082 -0.006000 -0.071817 
0.138027 -0.008389 0.008975 
0.107368 0.022029 0.008975 
0.081807 -0.030657 -0.003025 
0.037729 -0.050000 0.008885 
0.170288 -0.050000 -0.002434 
0.086696 -0.006000 -0.043096 
0.103019 0.034606 -0.003025 
-0.001820 0.006000 -0.034943 
0.019154 -0.025359 0.008975 
0.075043 -0.006000 -0.071737 
0.178931 -0.050000 -0.002976 
-0.151009 0.006000 -0.030092 
-0.011013 0.006000 -0.020153 
-0.041631 0.036152 -0.003025 
0.009116 -0.006000 -0.063063 
-0.254909 -0.006000 -0.062496 
-0.167642 0.006000 -0.040462 
-0.161422 0.008140 -0.003025 
0.167008 0.008038 0.008975 
0.131068 -0.018200 -0.003025 
-0.012226 0.006000 -0.090851 
-0.026033 0.006000 -0.093499 
0.004831 -0.005041 -0.103025 
0.078612 -0.043009 -0.003025 
0.083627 -0.025048 -0.003025 
-0.024531 -0.022202 -0.003025 
-0.175022 0.029743 -0.003025 
0.162770 0.003704 -0.003025 
0.144441 0.013687 0.008975 
0.155455 -0.009017 -0.003025 
0.158061 0.043595 0.008975 
-0.114163 -0.010641 0.008975 
-0.027056 0.000219 0.008975 
0.027034 0.004199 0.008975 
-0.303075 -0.006000 -0.079885 
-0.308734 0.005239 -0.082665 
0.064311 -0.022317 -0.003025 
-0.183738 0.006000 -0.081679 
0.080148 -0.009374 -0.003025 
-0.126818 0.011756 -0.003025 
-0.281927 -0.006000 -0.078615 
-0.149774 0.008257 -0.003025 
0.170773 0.050000 0.000018 
0.115486 -0.011407 0.008975 
-0.144460 0.010643 0.008975 
-0.268344 -0.006000 -0.100158 
-0.147104 -0.006000 -0.084260 
-0.071891 -0.006000 -0.018808 
-0.175183 -0.006000 -0.075936 
0.052638 -0.006000 -0.084074 
0.083575 0.006000 -0.028577 
0.088173 -0.020649 0.008975 
0.038985 0.018562 -0.003025 
-0.063080 0.006000 -0.072602 
-0.263264 -0.006000 -0.100048 
-0.156570 0.006000 -0.026330 
-0.261953 -0.006000 -0.052344 
-0.274706 0.006000 -0.069270 
-0.296586 0.006000 -0.098648 
-0.173450 0.006000 -0.011124 
-0.115589 0.006000 -0.077705 
-0.172544 0.006000 -0.098787 
0.191266 0.023929 -0.000151 
-0.148503 0.006000 -0.058884 
-0.006484 0.006000 -0.043681 
-0.008915 0.034977 -0.003025 
-0.027111 -0.003238 0.008975 
0.048607 -0.008208 -0.003025 
0.062765 0.006000 -0.047097 
0.142167 0.026246 0.008975 
-0.076228 -0.050000 0.004636 
0.174491 0.000628 0.008975 
-0.062167 0.006000 -0.035733 
0.159326 0.009519 0.008975 
0.128896 -0.029664 0.008975 
-0.142619 0.050000 -0.002374 
-0.301241 -0.006000 -0.016167 
-0.140739 0.006000 -0.058379 
-0.281291 0.006000 -0.092686 
-0.073129 0.006821 0.008975 
0.176175 -0.007884 0.008975 
0.014375 0.033083 -0.003025 
-0.264074 0.006000 -0.039786 
0.126554 0.007101 -0.003025 
0.089639 0.006000 -0.102293 
-0.006472 0.006000 -0.004829 
-0.003770 -0.006000 -0.055236 
-0.305759 -0.006000 -0.038080 
0.000865 -0.040277 0.008975 
0.048123 -0.006000 -0.032470 
0.123697 -0.008748 -0.003025 
0.079223 0.043693 0.008975 
0.055350 0.046396 -0.003025 
-0.077861 0.006000 -0.026856 
-0.189018 -0.029681 0.008975 
-0.012235 0.006000 -0.057950 
0.054827 0.006000 -0.018518 
0.015215 0.050000 0.007552 
-0.113362 -0.006000 -0.034538 
-0.139652 0.050000 -0.001406 
-0.073936 0.033980 0.008975 
0.018302 -0.045708 -0.003025 
0.038074 -0.037229 0.008975 
0.048579 -0.031753 0.008975 
-0.151474 -0.011602 -0.003025 
-0.019750 0.006000 -0.009541 
-0.107944 -0.006000 -0.084316 
0.073804 0.016150 0.008975 
0.015629 -0.043951 -0.003025 
0.043059 0.006000 -0.068332 
-0.096383 -0.006000 -0.076703 
0.025551 0.006000 -0.048540 
-0.079159 0.034294 -0.003025 
0.091266 0.003166 -0.088265 
-0.024960 0.018981 -0.003025 
-0.025354 -0.023316 0.008975 
-0.057033 -0.006000 -0.040483 
-0.071470 0.039005 -0.003025 
-0.116226 -0.006000 -0.095954 
0.001192 0.006000 -0.078968 
-0.137442 0.006000 -0.035368 
-0.287470 -0.006000 -0.099640 
0.047032 0.020120 -0.003025 
-0.080836 0.032707 0.008975 
0.000002 -0.036611 -0.003025 
-0.260541 -0.003151 -0.103025 
-0.139754 0.032895 0.008975 
0.137115 0.041029 0.008975 
-0.117648 0.040038 -0.003025 
-0.047364 -0.001546 -0.003025 
0.015359 0.006000 -0.055885 
-0.147909 -0.006000 -0.008724 
-0.039027 -0.006000 -0.025797 
-0.106560 -0.030741 -0.003025 
-0.129273 0.003999 -0.003025 
-0.151799 0.006000 -0.014129 
-0.059308 -0.036342 -0.003025 
0.071653 -0.006000 -0.009081 
-0.150879 -0.050000 -0.002819 
0.003519 -0.006000 -0.098625 
0.019276 0.006000 -0.100295 
-0.225986 0.006000 -0.083953 
-0.185070 -0.002091 -0.103025 
-0.115683 0.006000 -0.044306 
-0.060067 0.024351 0.008975 
-0.126322 -0.022810 0.008975 
-0.161596 0.001185 -0.003025 
0.127532 -0.032906 -0.003025 
0.060387 -0.004957 0.008975 
0.184968 0.009686 0.008975 
0.120297 -0.038896 0.008975 
-0.170299 -0.006000 -0.021322 
-0.020492 0.006000 -0.054749 
-0.131716 0.006000 -0.051208 
-0.169105 -0.006000 -0.090218 
0.105007 0.026849 -0.003025 
0.058522 0.006000 -0.091761 
0.048625 -0.006000 -0.014244 
-0.031479 0.011023 0.008975 
-0.299707 0.006000 -0.016225 
-0.117988 0.006000 -0.083699 
-0.285688 0.006000 -0.080690 
-0.002632 0.040919 -0.003025 
-0.156928 -0.006000 -0.046355 
-0.166446 -0.006000 -0.007015 
-0.268106 -0.006000 -0.072575 
-0.005208 -0.050000 0.008930 
-0.226574 -0.006000 -0.068665 
-0.126917 -0.032189 0.008975 
-0.150862 -0.037888 0.008975 
0.010963 -0.028595 -0.003025 
-0.217082 -0.006000 -0.031037 
0.163802 -0.050000 -0.002792 
-0.048116 0.050000 -0.001957 
0.017325 -0.017850 -0.003025 
0.141646 -0.050000 0.005690 
0.163700 0.050000 0.000100 
-0.064431 0.040182 0.008975 
-0.220305 -0.006000 -0.059603 
-0.006456 -0.041772 0.008975 
-0.241412 0.006000 -0.102990 
-0.232110 -0.006000 -0.077152 
0.121671 0.039615 0.008975 
0.175645 -0.025946 0.008975 
-0.163656 0.050000 -0.000494 
-0.250422 0.006000 -0.078260 
-0.191414 0.002694 -0.003025 
-0.068271 0.046914 -0.003025 
0.029653 0.019641 0.008975 
0.134568 0.020172 0.008975 
-0.207611 0.004674 -0.003025 
-0.131931 0.005271 -0.103025 
-0.046001 0.006000 -0.016759 
-0.094187 0.006000 -0.089576 
-0.114099 -0.006000 -0.016075 
0.059456 0.006000 -0.101492 
-0.027002 0.015808 -0.003025 
0.073769 -0.006000 -0.056764 
0.057236 0.006000 -0.067348 
0.120822 0.030838 -0.003025 
0.159800 0.043161 -0.003025 
-0.197031 -0.006000 -0.009937 
0.177651 0.013578 -0.003025 
0.073304 0.006000 -0.076674 
-0.049655 0.006000 -0.072514 
-0.154745 0.006000 -0.029828 
-0.056071 0.018852 0.008975 
0.047245 0.006000 -0.099924 
-0.218945 0.000532 -0.103025 
-0.236491 -0.006000 -0.015953 
-0.208734 0.009224 -0.003004 
-0.277761 0.006000 -0.070079 
-0.260425 0.006000 -0.073618 
0.014780 0.006000 -0.048372 
-0.160907 0.026014 0.008975 
-0.057355 -0.006000 -0.056545 
-0.078673 0.037486 -0.003025 
-0.144636 -0.006000 -0.017383 
-0.164350 -0.006000 -0.071189 
-0.177829 0.006000 -0.075699 
-0.178629 0.006000 -0.059293 
0.033866 -0.006000 -0.065862 
-0.039319 0.006000 -0.049735 
-0.102533 0.006000 -0.045034 
-0.018964 0.050000 0.000637 
-0.050052 0.050000 0.000884 
-0.232258 -0.006000 -0.026778 
-0.124523 0.002280 -0.103025 
-0.011533 -0.001311 -0.103025 
-0.164919 -0.007806 -0.003025 
-0.117115 0.006000 -0.080329 
-0.160977 -0.006000 -0.022081 
-0.234016 0.006000 -0.038450 
-0.163597 0.006000 -0.024289 
-0.140970 0.006000 -0.017306 
-0.227972 -0.006000 -0.102765 
0.034927 -0.011145 -0.003025 
-0.299494 -0.006000 -0.009276 
0.030649 0.046476 0.008975 
-0.261069 -0.004062 -0.003025 
-0.000358 0.023419 0.008975 
-0.272268 0.000334 -0.003025 
-0.292015 0.006000 -0.011910 
0.007130 0.028927 -0.003025 
-0.192541 0.006000 -0.051890 
0.131323 -0.001918 0.008975 
-0.091623 -0.006000 -0.017673 
-0.080768 -0.006000 -0.029595 
-0.178254 -0.006000 -0.094258 
0.076913 -0.006000 -0.051013 
-0.069638 0.038147 0.008975 
-0.111234 -0.050000 0.005876 
-0.072390 -0.006000 -0.081283 
-0.261473 -0.006000 -0.016891 
-0.085382 0.006000 -0.038210 
0.087141 0.040167 0.008975 
0.048265 0.015040 0.008975 
-0.195955 -0.010122 0.008975 
-0.134650 -0.050000 0.001852 
0.008809 0.006000 -0.056397 
-0.190495 0.026955 0.008975 
-0.092302 -0.026350 0.008975 
-0.065580 0.006000 -0.022603 
-0.252143 -0.006000 -0.071850 
0.058824 -0.006000 -0.005894 
0.015375 -0.039872 0.008975 
0.099341 -0.027346 -0.003025 
-0.165299 -0.006000 -0.045288 
0.113105 -0.050000 0.000850 
-0.156773 0.006000 -0.020022 
0.073187 -0.005873 -0.103025 
0.009492 0.006000 -0.076461 
0.144427 -0.001609 0.008975 
0.122425 0.005374 -0.003025 
-0.197476 -0.006000 -0.038743 
-0.119061 -0.006000 -0.072326 
-0.129677 0.006000 -0.047925 
0.040933 0.037878 0.008975 
-0.029572 -0.028072 0.008975 
0.080049 0.008783 -0.003025 
-0.268577 -0.006000 -0.018579 
0.116571 -0.012383 -0.003025 
-0.289958 -0.006000 -0.038753 
-0.174116 -0.010609 0.008975 
-0.196021 0.007305 -0.003025 
0.161085 0.002855 0.008975 
0.012405 -0.006000 -0.099054 
-0.132815 0.006000 -0.047936 
0.048923 0.006000 -0.069514 
0.012715 0.006000 -0.067540 
0.039208 0.006000 -0.005517 
-0.163606 -0.006000 -0.023782 
0.114985 -0.042463 -0.003025 
-0.172640 0.045124 -0.003025 
-0.208055 0.006000 -0.091093 
0.029812 -0.021707 0.008975 
-0.020162 0.006000 -0.062777 
-0.023515 0.006000 -0.064364 
-0.222043 -0.006000 -0.051378 
0.027023 0.006000 -0.035670 
0.007101 -0.006000 -0.035466 
0.046286 0.006000 -0.041312 
0.147415 -0.018692 0.008975 
0.082004 0.050000 0.006754 
-0.154273 0.029587 0.008975 
-0.199272 0.050000 -0.001769 
0.035440 0.006000 -0.067249 
0.022455 0.006000 -0.099060 
-0.115576 -0.027377 -0.003025 
-0.032909 -0.050000 0.000492 
-0.308734 -0.004731 -0.074567 
0.146548 -0.023536 0.008975 
-0.101585 0.006000 -0.086545 
0.004136 0.006000 -0.074362 
0.091266 0.002375 -0.039235 
0.088246 0.029341 -0.003025 
-0.267208 0.006000 -0.039964 
-0.191152 -0.006000 -0.050883 
0.032335 0.034429 0.008975 
0.128453 0.016780 -0.003025 
-0.064447 0.050000 -0.000131 
0.100870 0.050000 -0.001559 
0.038405 -0.006000 -0.030924 
-0.181044 -0.006062 0.008975 
-0.114906 -0.006000 -0.022918 
-0.308734 0.001857 -0.076724 
-0.165430 -0.010874 -0.003025 
0.075643 0.001691 -0.103025 
-0.108605 0.041211 -0.003025 
0.047547 0.003041 -0.003025 
-0.186004 -0.006000 -0.041348 
-0.124540 -0.006000 -0.096831 
-0.019320 -0.006000 -0.096590 
0.078824 -0.026200 0.008975 
-0.055587 -0.006000 -0.014451 
0.191266 -0.019347 -0.001736 
-0.004412 -0.008338 -0.003025 
-0.207836 -0.006000 -0.009176 
-0.115416 -0.005309 -0.103025 
-0.042921 0.038037 0.008975 
-0.136444 -0.006000 -0.089358 
0.038128 0.006000 -0.022400 
-0.138781 -0.042364 -0.003025 
-0.103837 0.023509 0.008975 
0.107815 0.018208 -0.003025 
-0.194697 -0.017348 -0.003025 
0.129184 0.025066 0.008975 
-0.220833 -0.006000 -0.092722 
0.141143 -0.013696 -0.003025 
0.006705 0.006000 -0.096006 
-0.156403 0.034461 -0.003025 
-0.256904 -0.006000 -0.084547 
-0.114776 -0.006000 -0.006837 
-0.079888 0.046518 0.008975 
0.002414 0.005225 -0.003025 
-0.065954 -0.006000 -0.093601 
0.019097 -0.050000 0.002493 
0.186930 -0.045746 -0.003025 
0.014778 -0.006000 -0.065317 
0.084465 -0.000962 0.008975 
-0.113575 -0.001376 -0.003025 
-0.130429 -0.039518 0.008975 
-0.060606 -0.015752 0.008975 
0.048563 -0.012662 0.008975 
-0.294810 -0.006000 -0.044040 
0.078251 0.050000 0.001379 
-0.180281 0.006000 -0.083342 
-0.045738 0.006000 -0.010881 
-0.039928 0.039774 0.008975 
-0.053414 -0.006000 -0.076133 
-0.033309 0.050000 -0.001679 
-0.200456 0.003307 -0.103025 
0.088008 -0.006000 -0.018101 
0.090554 0.006000 -0.075183 
0.169592 -0.002473 -0.003025 
0.069030 0.006000 -0.047246 
-0.187492 -0.049108 0.008975 
-0.244851 -0.006000 -0.072859 
0.025637 -0.020316 0.008975 
0.026881 0.032003 -0.003025 
0.043243 0.036419 -0.003025 
-0.157570 -0.006000 -0.065585 
0.103542 -0.031725 -0.003025 
-0.075675 -0.006000 -0.092240 
0.099850 -0.030633 -0.003025 
-0.142200 0.006000 -0.089622 
0.117754 0.050000 0.008828 
-0.151718 -0.012802 0.008975 
-0.122696 -0.045861 0.008975 
-0.071158 0.006000 -0.018588 
-0.242064 0.006000 -0.025752 
-0.125277 0.045787 -0.003025 
-0.140537 -0.050000 -0.001355 
-0.150962 0.048168 0.008975 
-0.041061 0.029246 0.008975 
-0.066030 -0.050000 -0.001344 
0.044930 0.037468 0.008975 
-0.070511 -0.006000 -0.073925 
-0.004920 0.020366 0.008975 
-0.197980 0.006000 -0.021607 
-0.123258 0.006000 -0.099442 
0.062124 0.014864 -0.003025 
-0.083104 0.006000 -0.025224 
-0.141703 0.006000 -0.009515 
-0.187215 -0.006000 -0.077745 
-0.083878 -0.005006 -0.003025 
0.067364 0.040539 -0.003025 
-0.175532 0.006000 -0.069842 
0.112354 -0.050000 0.003788 
-0.189265 0.000581 -0.003025 
-0.069294 -0.006000 -0.031581 
-0.100607 0.026634 0.008975 
-0.057024 0.003697 -0.003025 
-0.105683 0.006000 -0.079317 
0.146475 0.006706 -0.003025 
-0.014245 -0.006000 -0.076604 
-0.014356 -0.017958 0.008975 
0.050493 0.004896 -0.003025 
0.027046 0.015808 -0.003025 
0.026614 0.010585 0.008975 
-0.068560 -0.013851 0.008975 
-0.200946 -0.050000 0.005969 
-0.035969 -0.029879 -0.003025 
-0.180514 0.032999 0.008975 
-0.193229 -0.022954 -0.003025 
-0.216616 -0.006000 -0.074157 
-0.292610 0.006000 -0.047079 
-0.041819 -0.006000 -0.007718 
0.154194 -0.035278 0.008975 
-0.265737 0.006000 -0.065979 
-0.035297 -0.050000 0.003613 
0.020662 0.006000 -0.039209 
-0.098785 0.046185 -0.003025 
-0.095329 0.006000 -0.067898 
0.173434 -0.050000 0.000926 
-0.175673 -0.050000 -0.000338 
-0.104519 0.006000 -0.060275 
-0.053732 0.031463 0.008975 
0.084598 0.006000 -0.034439 
-0.193063 -0.003012 -0.103025 
-0.074715 0.009394 0.008975 
0.006422 -0.006000 -0.014892 
-0.119825 -0.036170 0.008975 
-0.222297 -0.006000 -0.037994 
-0.153919 -0.006000 -0.014885 
-0.085036 -0.006000 -0.075839 
-0.090713 0.009107 0.008975 
0.017593 0.001313 -0.003025 
-0.058178 0.006000 -0.097081 
-0.254771 0.006000 -0.097295 
0.091266 0.005483 -0.046920 
-0.246735 -0.006000 -0.097525 
-0.185093 0.006000 -0.058144 
-0.172214 -0.023900 0.008975 
0.036632 -0.039842 -0.003025 
-0.134071 0.006000 -0.080170 
-0.014994 0.021267 0.008975 
-0.064653 0.047556 0.008975 
-0.176246 -0.022720 0.008975 
-0.086886 0.006000 -0.089545 
-0.205745 -0.033625 0.008975 
0.181460 -0.035527 -0.003025 
0.053708 0.020308 0.008975 
0.071369 -0.006000 -0.082582 
-0.183715 -0.006000 -0.075715 
0.110241 -0.008725 -0.003025 
0.120780 -0.004397 -0.003025 
0.006403 -0.006000 -0.100541 
0.043346 -0.042843 -0.003025 
-0.093015 0.047534 -0.003025 
-0.033876 0.006000 -0.062024 
0.125528 -0.004908 0.008975 
-0.089584 -0.000106 -0.103025 
0.027670 -0.045611 0.008975 
-0.098788 -0.006000 -0.013087 
-0.094016 -0.006000 -0.098115 
-0.228302 -0.006000 -0.004670 
0.139088 -0.050000 0.003844 
0.057752 0.006000 -0.024799 
-0.128174 0.006000 -0.055504 
0.078829 0.006000 -0.063591 
-0.124782 -0.006000 -0.036534 
0.033926 0.006000 -0.094536 
-0.119730 -0.039876 0.008975 
-0.240742 0.000617 -0.003025 
-0.062067 0.006000 -0.080763 
-0.040874 0.006000 -0.018806 
-0.021972 0.003763 -0.003025 
-0.296955 0.006000 -0.014781 
0.007378 0.006000 -0.085297 
-0.033634 0.006000 -0.072027 
-0.121402 -0.006000 -0.011664 
-0.048646 -0.006000 -0.084425 
-0.200358 0.006000 -0.041909 
-0.022716 0.044718 0.008975 
-0.281498 0.006000 -0.049360 
-0.053988 -0.006000 -0.010538 
-0.124216 -0.005763 -0.103025 
0.009528 -0.006000 -0.026849 
-0.268696 -0.006000 -0.029996 
0.066726 -0.002595 -0.003025 
0.044979 -0.041283 0.008975 
-0.042549 -0.008238 -0.003025 
0.007161 0.050000 0.005306 
-0.097254 0.006000 -0.100406 
-0.108487 -0.006000 -0.094190 
0.017226 -0.009536 -0.003025 
-0.231418 -0.006000 -0.010508 
0.022029 -0.006000 -0.021007 
-0.022492 0.036922 -0.003025 
0.021057 0.006000 -0.065452 
-0.137075 -0.006000 -0.028682 
-0.061235 -0.034883 0.008975 
-0.013208 0.040552 -0.003025 
-0.039379 0.008427 0.008975 
0.013225 -0.012519 -0.003025 
-0.055658 0.008156 -0.003025 
0.093449 -0.003488 -0.003025 
-0.135333 -0.041309 -0.003025 
-0.194155 -0.050000 0.005763 
-0.166947 -0.017144 0.008975 
-0.083714 -0.006000 -0.100135 
-0.179771 -0.005686 -0.103025 
-0.148003 0.006000 -0.055297 
0.143914 0.026687 -0.003025 
0.064127 0.027710 -0.003025 
0.036562 -0.017509 -0.003025 
0.149316 0.036756 -0.003025 
-0.075651 0.037430 -0.003025 
-0.187852 -0.006000 -0.048987 
-0.125727 -0.006000 -0.017416 
-0.000478 -0.018001 0.008975 
-0.039647 -0.012541 0.008975 
-0.011948 -0.006000 -0.085312 
-0.196444 -0.038313 -0.003025 
0.039492 -0.006000 -0.061055 
-0.074286 0.016420 0.008975 
-0.259631 0.003372 -0.103025 
-0.154958 0.006000 -0.093483 
-0.232020 0.000251 -0.103025 
0.137676 -0.041559 0.008975 
0.049591 -0.016082 -0.003025 
0.103940 0.050000 -0.001060 
-0.123922 -0.006000 -0.069007 
-0.119280 -0.046879 -0.003025 
0.038276 0.011890 0.008975 
-0.084457 -0.006000 -0.062009 
-0.153680 -0.005234 -0.103025 
0.165003 -0.050000 0.003804 
0.077245 -0.006000 -0.043869 
-0.111161 -0.041331 -0.003025 
-0.062085 -0.006000 -0.094760 
0.085793 -0.006000 -0.101521 
-0.147550 -0.036025 0.008975 
-0.196550 -0.006000 -0.059396 
-0.064811 0.006000 -0.078229 
-0.177232 0.026930 -0.003025 
-0.208734 -0.011221 0.006675 
-0.239882 -0.006000 -0.023041 
-0.145429 0.001178 0.008975 
-0.082993 0.006000 -0.028507 
0.101339 -0.013415 0.008975 
-0.093067 -0.050000 -0.002988 
-0.185215 -0.006000 -0.072975 
-0.245168 0.006000 -0.081593 
-0.014612 -0.006000 -0.057460 
